ncols 59
nrows 79
xllcorner 3445993.34075929
yllcorner 5381534.17905033
cellsize 25
nodata_value  -9999
730 731 731 728 723 716 710 706 702 700 701 703 704 704 703 702 702 701 697 694 692 688 684 678 671 664 658 653 651 652 654 656 659 661 661 660 657 653 647 640 630 627 626 624 624 624 623 622 620 619 617 616 617 615 611 608 607 606 607
739 738 737 733 727 717 710 705 702 703 706 708 708 706 706 705 705 703 700 698 696 692 686 679 670 664 659 656 654 655 657 661 668 672 673 670 668 665 659 652 640 634 630 627 625 624 623 622 620 619 616 615 617 616 613 608 605 603 603
745 743 740 735 726 717 711 706 704 706 709 711 710 710 710 709 709 707 704 702 700 695 687 679 671 665 660 658 658 657 659 666 673 677 678 677 671 667 662 656 649 640 635 630 626 624 625 625 623 621 619 619 621 620 618 613 607 605 605
749 746 743 735 726 717 711 706 706 708 711 713 713 713 714 714 715 713 710 707 704 698 688 681 674 667 663 662 662 661 664 673 678 680 680 678 672 667 662 659 654 645 638 634 631 630 633 637 636 634 632 633 632 632 629 622 616 611 609
752 749 745 737 727 718 711 707 708 710 713 715 715 716 718 719 721 719 716 712 707 700 690 683 678 672 668 667 666 666 670 678 683 683 682 679 675 669 664 660 657 650 643 640 639 640 644 649 650 649 647 648 647 646 640 632 624 618 615
754 752 747 740 731 720 712 709 711 713 715 718 718 720 723 724 726 725 721 715 710 703 693 686 682 678 674 671 669 670 674 681 686 687 685 684 680 673 667 663 659 654 650 648 648 650 654 658 660 661 661 661 660 658 650 640 632 626 622
756 753 750 744 735 723 714 712 714 717 719 721 722 724 727 729 729 729 725 719 714 707 698 691 687 683 679 677 674 675 678 684 690 692 692 692 688 681 674 668 663 660 659 658 658 660 662 665 668 669 669 670 669 665 657 647 640 635 631
758 755 751 746 738 727 718 715 717 721 724 726 728 730 732 733 732 732 729 724 721 716 708 698 692 688 684 682 680 681 685 691 698 702 703 701 697 689 679 672 669 667 668 669 669 669 671 674 678 677 677 677 674 671 664 656 650 645 641
758 754 750 746 740 732 724 720 722 726 730 733 736 737 737 737 737 735 734 731 727 722 715 705 699 693 689 687 687 689 692 698 705 708 709 708 704 696 684 677 674 674 676 679 679 679 682 686 687 686 684 684 680 676 669 663 657 651 649
759 754 749 745 741 737 731 728 729 732 737 740 742 743 742 742 742 740 738 735 730 726 719 712 706 700 695 692 693 695 700 705 711 712 711 710 706 699 687 681 680 680 684 688 689 689 691 693 694 692 691 690 686 680 674 668 663 657 656
761 755 749 744 741 739 737 738 738 740 744 747 747 747 746 747 747 744 741 738 732 728 723 718 713 707 702 700 700 701 705 710 714 715 712 710 706 700 691 686 686 687 690 695 698 698 697 698 699 699 698 695 690 685 679 674 668 664 664
762 756 749 744 741 740 743 746 747 749 752 753 753 752 751 751 751 749 745 741 736 732 728 725 719 714 711 709 707 708 709 712 715 716 714 711 707 702 697 692 692 694 697 701 705 704 702 703 706 707 705 700 694 690 686 680 674 670 672
763 758 751 745 743 745 749 755 757 758 759 760 760 758 755 755 756 754 751 746 741 737 735 732 726 721 718 716 715 715 715 715 716 716 715 712 708 704 701 698 700 704 707 712 712 711 710 712 715 716 713 705 698 695 691 685 678 675 678
765 761 756 752 752 756 759 763 765 765 765 767 767 765 761 760 760 759 756 752 748 743 740 736 732 727 724 722 722 723 722 720 719 718 716 713 710 708 706 706 707 712 717 721 722 722 722 722 721 721 719 712 704 701 697 691 685 682 684
770 767 764 762 765 769 771 773 773 772 772 773 774 772 768 766 766 765 762 758 754 749 746 742 738 734 729 727 726 727 726 724 722 720 719 716 713 712 712 713 714 719 724 727 729 730 730 728 726 724 722 715 709 705 702 697 692 689 689
778 774 773 774 778 781 782 783 782 779 778 779 781 780 776 773 773 772 769 766 761 756 752 748 745 740 735 731 730 729 730 728 726 725 724 722 720 719 719 720 721 724 728 731 732 734 734 732 729 726 723 718 712 709 706 702 698 696 697
788 784 784 787 790 791 792 792 790 787 784 785 786 787 785 781 781 780 777 774 768 762 757 754 750 745 741 737 736 735 736 736 735 735 734 733 729 726 725 725 726 728 731 734 734 735 735 733 731 728 726 721 717 713 710 708 706 705 705
800 796 796 798 800 801 800 800 798 794 791 791 793 794 792 789 788 787 784 780 774 767 762 759 756 752 748 747 748 750 750 750 752 751 750 746 741 735 733 732 732 733 736 737 736 736 735 735 732 730 729 728 725 719 716 716 716 715 715
811 810 809 813 816 815 813 810 807 802 799 798 799 800 798 796 794 791 788 785 781 775 769 766 763 761 760 759 760 761 760 761 764 767 765 759 753 747 742 741 739 738 739 740 740 739 739 738 735 733 733 734 734 732 730 731 730 726 724
821 822 822 826 829 828 824 820 815 809 806 806 807 807 806 804 800 794 792 790 787 782 777 773 772 771 770 770 770 771 770 771 774 776 775 771 765 760 756 752 749 746 745 744 744 744 744 741 739 739 740 744 745 744 743 742 739 735 733
831 833 835 838 840 838 834 831 825 819 815 815 815 815 815 813 808 800 796 795 794 790 785 781 780 780 781 781 780 781 781 782 784 784 784 783 778 774 771 766 762 758 755 753 753 753 753 749 747 749 752 755 755 752 751 750 747 743 742
842 844 847 849 848 846 844 843 839 833 828 825 823 822 823 821 816 809 803 801 800 798 794 790 788 791 793 793 792 792 793 795 795 793 793 793 790 786 783 780 777 773 770 768 766 765 763 761 759 764 765 766 762 758 756 755 753 752 752
850 852 855 857 855 854 855 858 857 852 846 839 832 830 830 830 826 820 815 808 806 805 804 802 800 805 807 808 804 801 801 803 803 803 802 802 799 795 791 790 790 789 786 784 780 778 775 773 773 776 778 775 770 764 761 760 760 759 759
856 858 860 862 862 863 865 868 870 868 865 857 850 846 844 843 840 835 829 822 815 813 815 816 817 819 820 818 814 810 809 810 811 811 810 808 804 800 798 797 798 798 796 794 791 787 784 781 780 783 783 781 777 772 768 766 765 765 764
864 866 867 868 870 873 875 878 879 879 877 872 868 865 862 860 856 850 847 842 834 826 826 827 828 829 828 825 822 819 819 820 821 820 818 815 812 808 806 806 807 806 805 804 801 797 792 788 787 789 787 785 782 779 774 770 768 768 768
872 874 874 875 877 881 885 886 888 888 888 886 883 881 877 875 870 866 864 861 855 845 841 840 838 837 834 831 828 826 826 828 829 828 825 822 819 816 814 814 814 814 813 811 810 806 801 796 795 794 792 789 787 785 781 775 771 771 772
879 881 881 882 885 889 893 895 897 899 899 898 896 893 889 886 882 880 878 875 870 862 856 852 848 845 841 837 835 833 833 835 837 836 833 830 828 825 823 822 821 821 821 819 817 814 810 805 801 798 795 794 793 791 787 782 777 778 780
884 887 888 890 894 898 902 906 910 913 914 912 909 905 902 897 894 891 888 883 878 870 865 861 857 853 850 846 844 842 841 842 844 845 843 841 841 836 833 831 830 831 830 829 825 821 819 815 809 803 798 796 796 796 795 792 789 790 793
890 893 895 899 904 909 915 919 922 925 925 924 922 919 914 908 903 899 894 888 883 877 870 866 862 859 858 856 855 852 850 851 853 855 855 855 853 848 844 842 840 840 840 839 836 831 828 825 821 815 807 800 799 804 807 808 806 806 808
897 901 904 908 914 919 924 928 932 934 934 933 932 929 926 920 915 910 902 894 889 884 878 872 867 865 862 860 859 859 858 860 860 860 860 861 861 858 854 852 848 845 843 844 842 839 836 834 832 829 821 814 812 814 819 821 819 817 818
905 911 915 918 922 926 932 936 940 942 942 942 941 939 936 932 927 921 911 901 893 889 883 877 873 870 867 864 863 864 865 866 867 865 866 868 869 868 866 863 859 854 850 849 849 847 845 843 842 840 835 829 825 825 829 832 830 828 827
913 920 925 927 929 933 938 943 947 949 950 951 950 948 946 942 938 931 920 908 898 893 888 882 879 876 872 869 868 869 872 873 874 873 874 875 878 878 875 873 869 865 861 858 857 856 854 852 851 849 847 843 839 836 839 841 840 838 838
920 927 933 935 937 940 945 949 952 954 955 957 956 955 953 951 946 940 929 917 906 898 892 888 885 883 880 876 875 877 880 882 883 884 884 885 887 887 884 881 878 876 873 871 869 867 864 862 861 860 859 856 852 849 849 850 850 849 848
928 933 939 942 944 947 950 954 957 959 960 961 960 958 957 954 951 947 939 928 917 908 900 895 893 894 892 888 885 888 892 893 895 896 896 898 901 901 897 892 888 887 886 884 882 878 875 872 870 870 869 867 864 862 862 863 862 862 861
935 940 944 947 950 952 955 957 959 961 961 961 960 959 958 956 955 953 947 939 930 921 912 906 904 905 905 903 902 901 902 904 906 908 909 910 911 910 908 905 902 900 900 900 896 891 888 884 881 880 880 879 876 874 874 875 874 873 874
943 945 948 951 953 956 958 959 960 960 960 960 959 958 958 956 956 955 953 948 942 935 929 924 922 919 916 916 917 916 914 916 919 921 921 920 920 920 920 919 917 915 915 915 912 908 905 901 897 894 893 892 890 887 888 888 887 886 886
949 949 951 953 955 957 959 960 959 959 959 959 958 957 957 956 956 956 956 953 950 945 942 940 937 932 928 928 928 928 926 928 932 934 933 931 929 929 930 930 929 928 927 927 926 922 919 916 912 909 907 906 903 900 901 901 900 898 897
953 953 953 954 956 957 958 959 958 957 957 957 956 956 955 955 955 956 956 954 952 951 950 949 946 942 940 937 936 935 937 941 944 946 945 942 940 938 938 939 938 937 935 934 933 931 928 926 924 921 918 917 914 912 912 912 911 908 906
956 955 955 955 955 956 956 956 956 956 956 956 955 954 954 954 954 956 957 955 953 953 952 951 950 949 948 948 947 946 950 955 958 959 958 954 951 950 949 947 944 942 940 938 936 935 933 932 930 927 925 924 922 921 920 919 917 915 912
958 957 955 955 955 954 954 954 954 955 955 954 953 952 952 953 954 955 956 955 954 953 953 952 951 952 953 955 957 958 961 965 967 968 967 963 961 960 958 955 951 948 946 942 940 939 937 936 934 932 930 929 927 925 923 921 919 917 914
958 957 956 954 953 953 953 952 953 953 953 953 952 951 951 952 953 955 955 956 955 956 956 957 957 959 961 963 964 967 969 971 971 971 970 968 966 964 962 960 956 953 949 946 944 943 941 939 937 935 934 932 929 926 923 922 921 919 916
957 957 956 953 951 951 951 951 951 951 951 951 951 950 950 951 953 954 955 956 957 958 960 962 964 966 968 969 971 972 973 974 974 973 971 970 969 966 964 962 959 955 950 948 947 946 945 942 939 937 936 934 930 926 923 922 922 920 917
954 955 954 952 950 949 949 949 949 949 949 949 950 949 949 950 952 954 955 956 958 960 963 966 969 971 972 974 975 976 976 977 977 975 973 972 971 968 965 964 961 956 952 949 949 948 947 944 940 938 936 934 931 926 923 922 922 920 917
949 950 951 950 947 946 947 946 945 945 945 946 948 949 949 949 951 953 955 956 958 961 964 968 970 972 974 976 977 978 979 980 980 978 977 975 974 971 968 966 963 959 955 952 950 949 947 945 941 938 935 933 930 926 923 921 921 918 915
942 944 945 944 942 942 942 941 940 940 941 943 945 946 947 947 948 950 952 955 958 961 964 969 971 973 975 977 978 979 981 982 982 981 979 979 979 977 974 971 967 963 959 956 952 950 947 943 938 936 933 931 928 923 919 917 917 915 912
935 937 938 937 936 936 937 937 936 936 938 940 942 944 944 945 945 948 951 954 958 960 964 968 971 974 975 978 980 981 983 985 986 985 983 983 983 981 978 975 971 968 964 961 956 951 947 941 936 933 931 930 926 919 914 911 911 911 909
926 928 929 929 929 930 932 933 933 934 935 938 940 941 942 943 944 947 950 954 957 960 962 965 969 973 976 979 982 983 985 987 988 988 987 986 985 984 981 978 975 972 968 964 958 953 947 940 935 931 928 926 921 914 907 904 903 905 905
917 919 920 921 922 925 927 929 930 931 933 935 938 939 941 942 944 946 949 952 956 959 961 964 968 973 977 981 983 984 986 988 989 990 990 988 987 985 982 980 978 975 971 966 961 954 947 939 933 928 923 920 915 907 901 897 896 898 899
909 909 911 912 915 918 921 925 926 927 929 932 936 938 940 940 942 945 948 951 954 958 961 964 968 973 976 980 983 985 987 988 989 990 990 989 988 986 984 982 980 977 973 969 963 956 947 937 931 924 917 913 908 902 896 892 891 891 892
903 902 903 905 909 913 917 920 923 924 925 928 932 935 937 938 940 942 945 949 953 957 960 963 967 971 975 979 982 985 987 988 989 990 990 990 989 988 987 984 981 978 975 972 966 958 947 936 928 920 913 907 903 898 893 889 886 884 885
899 898 898 900 903 908 912 915 917 920 922 925 928 932 934 936 938 940 943 948 952 956 959 962 965 969 973 977 980 983 986 988 989 990 990 990 990 990 989 987 984 980 976 973 967 960 949 937 927 919 911 905 900 895 890 884 881 879 879
897 895 895 895 898 902 907 910 913 915 918 921 924 928 931 933 935 937 941 946 950 953 957 960 963 967 971 975 978 980 983 987 988 989 989 989 990 990 990 989 986 981 976 973 968 960 950 938 929 920 911 904 898 893 887 880 877 875 875
896 894 893 893 894 897 901 905 908 910 913 916 920 923 927 931 933 936 939 943 947 950 954 958 961 965 969 973 976 978 981 984 986 988 988 988 989 990 991 990 987 982 977 973 969 961 950 940 931 921 911 904 898 892 885 879 874 872 871
896 894 892 890 889 891 895 899 903 905 908 911 915 919 923 928 932 935 938 941 944 947 951 955 958 962 966 970 973 975 977 980 984 985 986 987 989 990 991 991 989 984 978 976 972 963 951 941 932 922 913 905 898 892 886 880 874 871 869
894 891 888 885 883 884 886 891 896 900 904 906 909 912 916 922 928 933 936 940 943 946 949 953 957 959 963 966 970 972 975 978 981 982 983 985 988 990 990 989 988 985 981 980 976 967 953 941 932 922 912 903 897 892 888 883 876 870 867
891 887 884 880 876 874 876 880 887 894 897 899 902 905 909 915 922 928 933 938 941 943 946 951 955 958 960 963 967 970 972 975 978 979 980 983 986 988 987 987 987 985 983 982 978 969 956 941 931 922 912 902 896 892 890 886 879 871 866
889 884 880 876 871 867 867 871 878 885 888 891 895 899 903 909 916 922 929 934 938 941 945 949 952 955 957 961 965 968 970 972 975 976 978 980 984 985 985 985 985 986 985 983 979 971 958 942 930 921 913 904 897 893 891 888 881 872 866
889 881 877 873 866 861 860 863 868 874 878 883 887 892 897 903 910 917 923 929 935 939 943 947 950 952 955 958 962 965 967 969 971 973 975 978 980 982 982 983 985 986 985 983 979 972 958 944 931 922 914 906 899 894 891 888 882 873 866
888 879 874 869 862 857 854 854 857 861 867 874 880 886 891 897 904 911 917 924 931 937 941 945 948 949 952 955 958 961 963 965 968 970 972 975 977 978 979 981 984 985 985 983 979 971 959 946 934 924 915 907 901 896 892 889 883 873 867
885 876 870 863 856 850 847 845 846 850 857 865 872 879 886 892 899 905 911 917 924 932 937 941 945 947 950 953 955 957 959 961 963 965 968 972 975 976 977 980 983 984 984 982 979 972 961 949 937 926 916 908 902 897 894 889 882 874 868
882 872 865 857 851 845 841 838 839 842 848 854 861 870 878 885 891 896 902 909 916 924 931 937 942 945 948 950 952 954 956 958 960 963 966 970 973 974 976 978 981 982 982 981 978 972 962 951 942 930 918 909 902 897 893 888 880 873 868
882 871 861 854 848 842 836 832 832 836 840 845 850 858 867 875 882 888 894 901 909 916 924 931 936 940 943 946 948 951 953 955 958 961 964 968 970 972 974 976 978 979 980 979 976 971 964 956 945 933 921 909 901 896 890 885 879 873 868
883 872 861 853 847 840 832 827 827 830 834 837 842 849 857 865 873 879 886 893 901 908 914 922 928 932 936 940 944 947 950 953 956 959 962 965 967 969 971 973 975 976 977 976 974 971 967 960 947 934 922 910 901 895 888 882 877 872 867
883 874 863 854 847 839 831 825 822 823 827 831 835 841 849 857 865 872 879 886 893 899 904 911 918 923 928 932 936 940 944 949 952 955 958 961 964 966 968 970 972 974 975 974 972 972 970 964 949 934 923 912 902 894 887 880 875 871 867
881 876 867 857 850 843 834 826 820 817 820 824 827 833 841 850 857 864 871 878 885 890 895 901 907 914 919 924 928 932 937 943 947 948 952 956 960 963 964 966 969 972 973 973 973 974 974 969 952 935 923 913 903 894 886 879 874 869 866
875 873 868 861 855 849 839 829 819 814 813 817 822 828 836 843 850 856 863 871 878 883 887 893 899 904 908 913 918 924 930 936 940 942 945 950 954 957 959 961 964 967 970 973 974 974 975 971 956 938 926 916 904 894 888 882 877 872 869
867 866 862 857 853 849 839 828 819 813 809 811 817 823 829 836 843 848 854 862 868 874 880 885 890 894 897 901 907 914 921 927 932 936 939 944 949 952 955 957 959 962 966 970 971 972 973 971 961 945 933 923 911 899 892 886 881 876 872
857 854 852 850 848 844 836 826 818 812 806 806 812 817 822 829 836 842 847 853 859 865 871 877 881 884 886 889 895 902 909 916 924 929 933 939 944 947 951 952 954 957 961 965 967 969 969 969 962 950 940 930 919 907 899 892 887 881 875
843 841 841 841 839 836 831 823 816 810 803 801 805 811 816 823 831 837 841 845 851 856 862 867 872 875 877 879 883 889 896 904 914 921 926 932 938 942 945 946 948 952 957 960 962 964 965 965 961 953 944 937 928 917 908 901 894 888 879
829 828 830 831 829 825 821 817 813 806 799 795 798 804 810 818 826 831 834 838 842 847 852 857 862 865 868 870 873 878 885 893 903 910 917 925 930 934 937 939 942 947 953 955 957 959 961 960 958 953 947 941 935 927 920 911 902 894 883
815 814 817 819 816 814 812 811 810 804 795 792 793 797 804 811 818 823 826 830 834 837 841 846 851 856 858 860 863 869 877 884 892 900 907 915 921 925 929 931 935 941 947 949 949 951 953 953 952 949 947 944 940 935 929 920 909 900 889
804 805 807 809 808 806 806 807 807 803 795 789 788 791 798 805 811 816 819 822 825 828 831 835 840 845 848 850 855 862 870 876 883 890 898 904 909 913 918 921 927 933 939 940 941 943 946 945 945 945 945 944 942 938 933 924 914 907 898
795 796 798 798 799 800 800 801 801 799 793 787 785 787 793 799 803 808 811 814 817 819 822 825 830 835 838 841 846 853 861 868 874 881 888 894 897 900 905 911 917 922 928 930 932 934 937 938 939 941 942 942 942 940 936 930 922 916 908
788 789 789 789 790 792 793 793 793 792 788 783 782 784 789 793 797 801 804 807 810 811 813 816 820 824 828 832 838 845 851 858 865 871 878 884 886 888 893 899 905 910 915 919 922 923 928 931 932 935 938 940 941 941 939 935 931 925 917
780 782 781 779 781 783 785 785 784 783 781 779 779 781 784 788 791 794 796 799 802 802 803 805 809 814 819 824 829 836 843 849 855 862 869 873 877 879 883 888 893 898 902 906 909 912 916 920 923 928 931 934 938 939 938 937 936 932 924
771 773 772 771 773 775 777 777 777 776 774 773 774 776 778 781 783 786 788 791 792 793 793 795 801 807 812 816 820 826 833 839 846 852 858 862 866 870 873 876 879 883 889 893 897 900 903 906 909 914 920 924 929 932 933 932 932 929 923
759 761 762 763 764 766 767 768 769 769 767 767 768 768 771 773 774 777 779 782 784 783 784 786 792 798 803 807 811 815 821 827 834 840 845 848 852 857 862 865 867 871 876 882 886 889 891 894 898 903 909 913 917 923 926 926 925 923 918
750 753 754 755 756 757 758 759 761 761 761 762 763 762 762 764 765 768 771 774 776 776 777 780 784 790 794 797 800 804 810 818 823 828 832 835 839 844 850 853 856 860 865 871 876 879 881 884 889 893 898 902 905 912 916 917 916 915 912
744 747 748 749 749 748 750 752 753 755 756 757 758 757 756 756 757 759 762 766 768 769 771 775 779 782 785 787 790 794 801 808 812 816 820 822 826 831 837 841 844 848 854 860 864 868 871 874 879 882 887 891 894 899 904 906 906 906 905
